# This PCD file was generated using the MATLAB® pcwrite function
# from Computer Vision Toolbox®.
# .PCD v.7 - Point Cloud Data file format
VERSION .7
FIELDS x y z
SIZE 4 4 4
TYPE F F F
COUNT 1 1 1
WIDTH 1589
HEIGHT 1
VIEWPOINT 0 0 0 1 0 0 0
POINTS 1589
DATA ascii
-6.934830 74.635742 6.376001
33.538361 74.385345 5.930675
-11.466868 75.652100 5.983145
-9.395668 75.422707 5.968736
-11.823776 76.609009 6.261695
-10.671906 76.559418 6.120594
-7.092346 76.846352 5.988808
-11.053925 77.749191 5.512600
21.882843 77.768578 5.620141
22.365517 77.520348 5.615403
30.813156 77.483131 5.798181
31.562948 77.576767 5.845287
32.346176 77.278450 5.837717
-12.838379 79.058151 6.218229
21.452475 78.389168 5.743982
22.612564 78.266403 5.760305
23.688004 78.757286 5.821104
24.187927 78.537117 5.816388
18.712433 79.530914 6.176753
18.862305 80.350754 6.244455
19.890625 80.817032 5.968655
20.207260 80.610092 6.452865
28.579651 80.875954 5.713272
20.533051 81.353394 5.557731
21.188293 81.568314 6.372609
27.981873 81.129707 5.542104
30.762360 81.246834 5.944772
30.437012 83.174210 5.765652
27.486217 87.977333 5.929616
28.172607 88.080856 6.188323
28.465118 88.177094 6.222769
28.258484 89.623901 6.092710
26.901505 92.584229 6.093901
27.153069 92.606224 5.964479
34.030151 96.436745 6.207488
26.197794 -99.546982 7.208447
27.340057 -99.687134 7.147855
31.617645 -99.058830 7.375305
27.826111 -98.007195 6.738434
29.163010 -97.972206 6.805707
32.421658 -98.432358 7.072890
33.113159 -97.936508 7.255878
26.881378 -97.486282 6.709138
27.469387 -97.679703 6.862847
28.872742 -97.688576 6.822442
29.093948 -97.709106 6.722423
33.694206 -97.679535 6.927843
34.504879 -97.347610 6.848863
35.271690 -97.048012 6.831992
36.101135 -96.997932 7.475416
37.537884 -96.530167 7.385057
38.435478 -96.411003 7.327057
39.021240 -96.585045 7.293096
32.786865 -94.161568 7.336286
33.341442 -94.076233 6.647821
36.836823 -93.976028 6.849856
37.477463 -94.299942 7.107829
38.692760 -94.271423 6.927858
32.837463 -93.880211 6.863879
33.230408 -93.806801 6.510126
35.089569 -93.348747 6.796632
38.767944 -93.844635 6.506104
72.672913 -81.016396 7.479596
42.331421 -79.006569 7.309814
42.683502 -78.795929 7.278148
43.573219 -78.237129 6.697869
44.098358 -77.911629 6.600019
44.567154 -77.617905 6.538387
45.703949 -76.921783 6.545625
46.140167 -77.013222 6.504328
70.259186 -76.960129 7.389235
45.918869 -76.776978 6.754764
46.620461 -76.442574 7.041167
47.379837 -76.129265 7.020342
69.838058 -76.264214 7.240852
47.698029 -75.743195 7.062889
48.501560 -75.231720 7.168200
49.128128 -75.279099 7.115093
49.551804 -74.607246 7.382979
50.318687 -74.194618 6.998469
68.469467 -73.985336 7.201052
50.831501 -73.735077 7.348524
51.562351 -73.339813 7.238506
52.366146 -72.988655 7.245565
67.745125 -73.192238 6.858932
68.111359 -73.434708 7.149790
52.650192 -72.635513 7.075039
53.284073 -72.339462 7.132720
54.144089 -72.023026 7.329638
66.931076 -71.906044 6.954165
67.326630 -72.433243 7.058706
-22.693216 -71.316368 6.547070
53.932526 -71.848221 7.314000
54.438393 -71.532227 7.266244
55.317562 -71.072334 7.032598
66.562584 -71.308205 6.929289
99.921722 -71.439125 7.322130
-22.536880 -70.746300 6.645060
55.676117 -70.766289 7.095179
56.513878 -70.299690 7.230844
57.222866 -70.026680 7.325769
65.838493 -70.153732 6.885942
66.150986 -70.650948 6.947249
-22.276672 -69.512352 6.567219
57.645824 -69.545364 7.036327
58.252281 -69.245407 7.095476
59.334747 -68.911072 7.070888
65.360184 -69.370232 6.897629
-34.067200 -68.231728 7.079294
-32.584980 -68.481331 7.199053
-31.407785 -68.480476 7.093129
-22.128296 -68.823830 6.683717
0.776245 -68.347687 6.550126
58.851719 -68.776642 7.326067
59.537174 -68.395752 7.203989
60.283913 -68.004524 6.951845
64.725273 -68.345978 6.812573
65.038857 -68.836060 6.770847
-35.434021 -67.796898 6.759931
-34.415604 -66.953262 6.983568
-33.449162 -67.198730 7.087999
-32.629391 -67.350815 7.094393
-31.596470 -67.520370 6.990790
-30.881968 -67.217552 6.836744
60.666687 -67.671219 6.950304
61.463337 -67.210945 6.969872
62.193329 -66.992569 7.008318
63.895298 -67.049530 6.902425
64.227127 -67.548088 6.852757
-43.559753 -65.994881 7.024654
-41.084290 -66.005074 7.499330
-40.905792 -66.502693 6.641233
-38.271458 -65.942650 6.981700
-37.548271 -66.135941 6.979132
-36.506462 -66.401627 6.985834
-35.513924 -66.631599 6.987363
-34.683987 -66.838753 7.095860
-30.709639 -66.385544 6.775934
61.938221 -66.851051 6.916963
62.546684 -66.521790 6.980190
63.311630 -66.269714 6.920687
-92.381508 -64.987885 7.308679
-91.563393 -65.178391 7.340553
-90.653358 -65.307007 6.824649
-48.611176 -65.233864 7.343001
-47.429073 -64.991295 7.186603
-46.587830 -65.188477 7.174536
-45.146496 -65.489372 7.216341
-44.385197 -65.150871 7.126930
-43.655769 -65.042313 6.956642
-42.396690 -65.073227 7.037892
-41.400242 -65.248001 7.032383
-40.645657 -65.421516 7.013813
-39.498344 -65.711945 7.101395
-38.693832 -65.837738 6.960812
-37.226665 -65.041298 7.488989
-36.413277 -65.016006 7.438827
-35.404961 -65.159996 7.447547
-34.616829 -65.416611 7.434934
-30.463049 -65.418129 6.727957
-97.141563 -63.932831 7.197001
-96.442947 -64.031876 7.368065
-95.498322 -64.231796 7.404277
-94.501869 -64.461906 7.394485
-93.486427 -64.708717 7.356296
-92.790001 -64.842636 7.414427
-90.271759 -64.433670 6.919928
-52.287022 -63.944504 7.068672
-51.417046 -64.147705 6.824069
-50.584431 -64.269958 7.210971
-49.603184 -64.424492 7.146926
-48.306904 -64.701515 7.155309
-47.495399 -64.399391 7.042978
-46.321041 -64.031258 6.757615
-45.438316 -64.295700 6.891340
-44.580578 -64.518654 6.879432
-43.603603 -64.763748 6.977384
-42.813583 -64.838272 6.763528
-37.243931 -64.754829 7.467458
-36.622520 -64.667526 7.435136
-35.852764 -64.806541 7.442395
-30.231874 -64.456253 6.720249
-29.945902 -64.164322 6.870209
-99.405876 -63.361416 7.369761
-98.482803 -63.579082 7.373660
-97.534027 -63.775925 7.382508
-96.907730 -63.880619 7.458395
-90.089180 -63.539436 6.756497
-89.975990 -63.055031 6.757366
-56.227425 -62.932930 6.808448
-55.579834 -63.076847 6.765776
-54.442429 -63.333733 6.859138
-53.581837 -63.554882 6.851451
-52.455093 -63.677433 7.038418
-51.353794 -63.205288 7.057716
-50.427692 -63.183971 6.974306
-49.635513 -63.326950 6.921584
-48.552353 -63.634598 7.059400
-47.455891 -63.768421 6.896861
-46.597118 -63.761444 6.738652
-45.783173 -63.845982 6.814295
-30.070059 -63.577625 6.805686
-29.830513 -63.261272 6.785498
-90.773979 -62.269173 7.457542
-89.864120 -62.399235 6.640408
-60.337402 -61.980392 6.932908
-59.456188 -62.124561 6.971395
-58.427250 -62.415546 6.761892
-57.497875 -62.636620 6.781887
-56.631718 -62.815445 6.884214
-55.658405 -62.669357 7.104602
-54.626068 -62.373810 7.102670
-53.481659 -62.693039 6.779697
-52.289505 -62.721386 7.206816
-51.647278 -62.594616 7.016860
-50.326668 -62.704994 6.972677
-49.930775 -62.879559 6.879786
-29.587788 -62.258125 6.903154
-28.475292 -62.092468 7.069424
-90.605164 -61.885532 7.478863
-89.696487 -61.572136 6.745491
-65.068787 -60.971085 6.704414
-64.412560 -61.166634 6.985209
-63.461647 -61.302174 7.040866
-62.472931 -61.489697 6.980204
-61.540874 -61.655258 6.952699
-60.650612 -61.787807 7.039815
-59.616341 -61.302761 6.977595
-54.422466 -60.980774 7.153650
-53.592167 -61.172295 7.168865
-52.585197 -61.338406 7.096223
-51.546406 -61.299767 7.427523
-31.049326 -61.289173 7.352717
-30.900129 -61.068058 7.055572
-29.420172 -61.721947 7.275993
-28.077745 -61.518711 7.061322
-27.902580 -61.138771 6.959506
-89.434021 -60.523331 7.213275
-69.370094 -59.938175 7.302036
-68.593719 -60.054527 7.110568
-67.616028 -60.224117 7.118931
-66.415794 -60.654583 6.870834
-65.465668 -60.545300 6.892704
-64.249557 -59.936455 6.980552
-63.477810 -60.026222 6.910572
-62.638649 -60.222813 6.865004
-61.540966 -60.434071 7.025239
-60.458649 -60.770706 7.181666
-59.834759 -60.852325 6.810704
-57.588345 -60.169857 6.977136
-56.263180 -60.531647 7.117174
-55.514568 -60.679958 7.004715
-54.791210 -60.469456 7.462947
-53.402710 -60.313606 7.414655
-52.447666 -60.269257 7.392675
-51.840839 -60.672428 7.397902
-31.028397 -60.830833 6.891314
-30.727282 -60.370098 6.956718
-27.790003 -60.350277 7.002079
-89.282288 -59.369476 7.246192
-85.952789 -59.230492 6.741312
-82.983002 -58.907463 7.492243
-73.612640 -58.966774 7.396574
-71.143936 -59.447510 7.341266
-70.471588 -59.565697 7.195504
-69.900940 -59.808899 7.313926
-68.616341 -58.921921 7.209394
-67.329971 -59.341545 6.819823
-66.392555 -59.410038 6.963216
-65.514572 -59.570145 6.916169
-64.634705 -59.738430 6.848096
-63.906189 -59.872360 6.858429
-54.182476 -59.526768 7.462895
-53.531723 -59.511826 7.417698
-52.789204 -59.858246 7.380470
-30.519394 -59.751270 7.327561
-27.568178 -59.384769 6.909240
2.426300 -59.060120 7.361739
-89.061775 -58.742306 6.863130
-88.957603 -58.171894 6.848223
-87.483772 -57.938419 7.180157
-86.762955 -58.070972 7.189445
-85.319305 -58.194614 7.206061
-84.685997 -58.052074 7.394526
-83.527489 -58.118637 7.340945
-82.753830 -58.360413 7.405174
-75.024048 -58.534081 7.282667
-74.437828 -58.787518 7.285981
-72.315231 -57.980976 6.691342
-71.831123 -58.143353 7.149539
-70.476517 -58.109241 7.461012
-68.380989 -58.300060 7.239553
-67.441277 -58.152061 7.352101
-66.622299 -58.308647 7.350721
-65.880341 -58.857964 7.357335
-27.334667 -58.374062 6.825569
-1.715607 -58.064957 7.357430
-89.118347 -57.770721 7.491861
-88.417320 -57.648891 7.097189
-87.640114 -57.768383 7.056992
-86.927994 -57.784870 6.903470
-85.201126 -57.524212 7.485065
-84.442749 -57.713516 7.401907
-83.430466 -57.441460 7.333952
-82.531334 -57.343193 7.359838
-81.884911 -57.384518 7.347516
-80.738739 -57.293991 7.271218
-79.332916 -57.671028 7.400914
-77.155281 -56.916996 6.813849
-76.447479 -56.974079 6.625010
-75.425446 -57.122177 6.760326
-74.491631 -57.259369 6.714420
-73.466606 -57.516434 6.766543
-72.614288 -57.700668 6.763319
-71.831131 -57.794598 6.741323
-70.390617 -57.737175 7.428952
-69.540024 -57.373123 7.441334
-68.254654 -57.700500 7.440260
-67.658218 -57.658676 7.473181
-66.793976 -57.755459 7.417633
-27.108089 -57.407387 6.844798
-26.908243 -57.202461 7.001711
-8.104340 -56.982552 6.714233
-7.280731 -57.164268 6.653058
-6.589310 -57.148560 6.921615
-5.442169 -57.249668 7.405430
-88.723877 -56.812569 6.761600
-84.151321 -56.528893 7.472347
-83.476387 -56.317711 7.426821
-82.450645 -56.249710 7.318270
-81.629257 -56.225922 7.208955
-80.337540 -56.076916 6.681333
-79.536041 -56.213650 6.746179
-78.555893 -56.385704 6.730340
-77.521660 -56.608776 6.724796
-76.479584 -56.663101 6.967607
-75.517845 -56.524139 7.066969
-74.569420 -56.468670 7.324211
-73.812302 -56.653553 7.485123
-27.004425 -56.857353 6.781859
-26.870327 -56.431358 6.862245
-10.355209 -56.194725 6.834990
-9.557648 -56.287762 7.063554
-8.604675 -56.559277 7.050302
-7.924835 -56.623192 7.419332
-83.045609 -55.850956 7.478206
-82.403641 -55.735580 7.369932
-81.587120 -55.619736 7.335908
-80.439758 -55.802685 6.927163
-79.324593 -55.774147 7.300026
-78.641602 -55.659134 7.237090
-77.289261 -55.600269 7.478382
-76.352303 -55.506275 7.460257
-75.463097 -55.721195 7.445446
-74.606659 -55.701622 7.458500
-26.595285 -55.303535 6.800923
-15.200439 -54.934258 7.453954
-14.035594 -54.948032 6.914468
-13.216908 -55.309772 6.898083
-12.334656 -55.515957 6.756122
-11.534993 -55.631744 7.001103
-10.176941 -55.808914 7.267848
-26.367426 -54.402370 6.818447
-19.381958 -53.971428 6.554758
-18.059052 -54.271706 7.123742
-17.630432 -54.383751 6.975684
-15.682124 -54.745525 7.203874
-26.186529 -53.449081 6.736107
-25.944519 -53.572628 7.176989
-23.295425 -53.105133 6.922513
-22.505976 -53.246407 6.983016
-21.440796 -53.377514 7.231424
-20.368736 -53.701340 7.191268
-19.866119 -53.884865 6.905401
-26.022499 -52.779579 6.837295
-25.860575 -52.542065 6.765332
-24.516474 -52.744980 6.887323
-23.562460 -52.734425 6.859304
42.724380 -49.513420 6.867887
-29.439365 -47.136795 7.071440
-28.314615 -47.432396 7.126872
-27.869659 -47.427940 6.979877
-29.239723 -46.329674 7.211177
-28.791473 -46.370731 7.115288
39.118088 -46.406998 6.745997
-29.115202 -45.513840 7.170626
-28.824200 -45.206200 7.068433
45.590210 -45.195038 6.828844
46.448051 -45.396038 6.655528
47.477276 -45.343479 6.862157
-28.618723 -44.406269 7.113269
-27.491842 -44.408848 7.050448
45.389797 -44.484779 7.008243
47.714947 -44.321686 7.066167
-28.583139 -43.360794 7.166451
-27.573456 -43.729210 6.868875
45.260498 -43.848961 7.050641
46.416367 -42.905373 7.065032
47.870228 -43.403908 7.016560
48.022324 -42.930626 7.108239
-28.355591 -42.364151 7.175383
45.716362 -42.532063 7.139693
46.232044 -42.651287 7.138494
47.961437 -42.791336 6.930206
48.134407 -42.293945 7.012595
-28.151213 -41.393902 7.136143
-27.887972 -41.189888 6.945693
-26.319183 -40.920815 7.446610
45.583668 -41.042561 7.473265
46.920746 -41.584236 6.929763
47.499729 -41.678471 6.660095
48.334637 -41.414925 7.012521
-28.029505 -40.724583 7.076432
-27.812048 -40.439053 7.050530
-26.239479 -40.171131 7.349599
45.761604 -40.276466 7.242901
47.082977 -40.551216 6.972609
48.574028 -40.353283 7.037371
-27.418236 -39.316090 7.011239
-26.304079 -39.479813 7.176707
-25.920811 -39.273998 7.361078
45.935329 -39.471458 7.029848
46.042221 -39.035580 7.058329
47.265945 -39.685204 6.543297
48.702454 -39.642868 6.990695
-27.377411 -38.446945 7.064699
-26.791874 -38.229042 6.944567
46.196575 -38.358604 6.980754
47.670116 -38.348701 6.524744
48.517994 -38.544945 6.536468
-27.123188 -37.322865 7.011706
-26.842344 -37.169685 7.008787
-25.431448 -37.384617 7.369291
46.422016 -37.374680 6.998990
-27.039364 -36.686073 7.023370
-26.618233 -36.283211 6.986204
-25.355196 -36.477692 7.258114
-24.934326 -36.082298 7.459021
46.648537 -36.403549 6.981217
-26.460415 -35.442791 7.018211
-25.813866 -35.348003 6.844573
-24.149582 -35.718834 6.591753
46.881386 -35.405598 7.015110
47.016663 -34.959923 6.850445
-26.335129 -34.492863 7.033234
-25.773371 -34.334805 6.928317
-24.796204 -34.273422 7.412408
46.980206 -34.840313 7.140379
47.125893 -34.375580 6.936448
-26.246044 -33.373547 7.101876
-25.568497 -33.410095 6.898544
-24.563766 -33.351192 7.317418
47.348648 -33.429855 6.887928
-26.083588 -32.464058 7.040254
-25.488411 -32.380463 6.989218
-24.552612 -32.484108 7.177621
-23.418610 -32.513680 6.531443
47.586739 -32.409550 6.949879
-26.012817 -31.862785 6.895270
-25.480394 -31.391916 6.986608
-24.784576 -31.295731 6.839666
-23.254639 -31.598455 7.444505
47.802036 -31.411015 6.935939
-25.326113 -30.319378 6.958396
-24.695858 -30.433132 6.958300
-23.804758 -30.380566 7.247333
42.298157 -30.644020 7.078424
46.742466 -30.277651 6.977168
47.534451 -30.458408 7.225333
48.031662 -30.105869 7.291426
-25.275175 -29.511440 6.994927
-24.786739 -29.410822 6.989231
-23.543335 -29.300770 7.377984
38.596649 -29.741196 6.924876
39.160828 -29.853165 6.959927
42.642033 -29.016594 6.988730
43.562290 -29.096798 6.996242
44.322548 -29.099939 7.143405
45.593258 -29.297186 7.202830
46.551460 -29.217964 7.115166
47.579891 -29.423391 6.964837
48.121716 -29.460255 6.995715
-25.097839 -28.513042 7.082804
-24.727150 -28.338713 6.958110
38.744598 -28.031830 7.075208
39.666084 -28.049742 7.101041
40.437107 -28.200138 7.065464
41.698647 -28.082714 7.006139
42.465923 -28.230944 6.969613
43.449486 -28.589062 7.136817
44.520451 -28.597176 7.074667
45.472469 -28.752121 6.889897
46.067707 -28.868885 7.252683
-25.036942 -27.787937 6.724546
-24.596931 -27.279877 6.964153
-23.928640 -27.164803 6.864983
36.539642 -27.048412 7.461958
37.758636 -27.090765 6.899667
38.409851 -27.313433 6.995986
39.401779 -27.555862 7.064283
40.426727 -27.601988 7.224908
41.438736 -27.813070 7.008768
-24.447565 -26.461533 6.968393
-23.769690 -26.531483 7.352551
30.269144 -26.139807 7.079856
31.745853 -26.014990 7.151507
32.489899 -26.208054 7.148696
33.660557 -26.086950 7.041862
34.316200 -26.145441 7.047227
35.791519 -26.468124 7.021492
36.738457 -26.734873 6.890990
37.255196 -26.840689 6.935684
-24.259630 -25.333170 6.945960
-23.964794 -25.033239 7.069093
27.664139 -25.107412 7.094503
28.498842 -25.061115 6.931993
29.573690 -25.436569 7.019446
30.469990 -25.587740 7.086471
31.482805 -25.510139 6.818614
32.353668 -25.680683 7.031454
33.087048 -25.843060 7.276952
95.841156 -24.949274 6.640080
96.662437 -25.194981 6.884536
97.506470 -25.402246 6.811439
98.377487 -25.541939 6.825171
99.120667 -25.680656 6.741855
-24.102423 -24.411974 6.961710
-23.872259 -24.256727 6.986194
22.979401 -23.895988 7.391830
23.799692 -24.113958 7.383593
24.499382 -24.245789 7.336022
25.385382 -24.071754 6.979524
26.599731 -24.399441 6.853495
27.621120 -24.668602 6.898859
28.343100 -24.801302 6.871588
29.118927 -24.850571 6.710408
90.776382 -23.952559 7.426605
91.585579 -23.943441 6.933779
92.785553 -24.252666 6.709476
93.719307 -24.390541 7.126631
94.329964 -24.731741 6.786943
95.556915 -24.818895 6.596777
-24.013718 -23.872822 7.164482
-23.781057 -23.417595 6.942370
20.751804 -23.005211 7.114460
21.345766 -23.316456 7.115354
22.699158 -23.517065 7.153430
23.249611 -23.597483 7.266084
24.422653 -23.693417 7.240310
25.058716 -23.892071 6.501647
87.665642 -23.042601 7.182768
88.354767 -23.194904 6.944956
89.536430 -23.378553 6.861493
90.542229 -23.644129 6.868528
91.384796 -23.811504 6.912890
-23.529564 -22.429489 6.940310
9.523132 -21.915039 7.486125
16.641026 -21.996532 6.780923
17.404406 -22.116325 7.126641
18.406900 -22.382971 7.043721
19.045715 -22.429604 7.472969
20.489534 -22.836969 7.169185
84.422607 -22.237572 6.959297
85.252632 -22.469090 6.986610
86.265373 -22.503937 6.753575
87.278168 -22.841921 7.220002
-23.239262 -21.311878 6.964587
-22.959200 -21.073181 6.947980
5.567188 -21.010624 7.465706
6.458389 -21.211029 7.440181
8.881882 -20.931494 6.610799
9.228439 -21.133804 6.748111
10.115356 -20.939331 6.818132
11.726583 -21.217876 6.973255
12.377924 -21.305283 7.017368
14.725244 -21.448902 6.777921
15.725525 -21.625578 6.625532
16.411703 -21.818895 6.793752
84.406052 -21.424103 6.988613
-23.098177 -20.337179 6.844522
-22.843601 -20.482496 6.966059
1.301193 -19.992048 7.480708
3.657288 -20.553589 7.437807
4.699117 -20.010933 6.835487
5.579830 -19.959229 6.918780
6.503007 -20.027193 7.067884
7.528293 -20.059557 7.061964
8.528491 -20.418739 7.024179
9.646921 -20.443661 7.117019
10.475170 -20.579247 7.052254
11.219007 -20.741587 7.025423
12.328827 -20.888885 6.640895
84.681190 -20.381445 6.965157
-23.043365 -19.845676 6.533669
-22.587326 -19.603840 6.968880
-21.667421 -19.019606 7.043416
-0.386795 -19.644327 7.428349
0.642553 -18.965136 6.678830
1.466568 -19.088062 6.731996
2.530958 -19.183756 6.844158
3.458500 -19.405485 6.874227
4.402911 -19.327198 6.952372
5.331738 -19.724705 7.002420
6.683727 -19.718420 6.997443
7.383431 -19.798952 7.081404
84.815239 -19.447422 7.005593
85.103622 -19.284224 7.026339
-21.217268 -18.733303 6.973880
-20.584633 -18.337629 7.063836
-19.921387 -17.941767 7.424912
-3.070984 -18.067114 6.561370
-2.473460 -17.960720 7.062714
-1.406769 -18.194662 6.989515
-0.323396 -18.112505 6.943138
0.320304 -18.372429 6.987244
1.380789 -18.379498 7.104108
2.454277 -18.569374 6.932983
3.234372 -18.775980 7.060328
4.111908 -18.849915 6.907653
84.928429 -18.636053 7.039101
85.181549 -18.328455 7.017160
-19.534893 -17.693836 7.039536
-18.875448 -17.303192 7.065950
-8.931793 -17.794811 7.236373
-7.171367 -16.933817 6.791039
-6.438729 -17.034901 6.792522
-5.646105 -17.210379 6.843617
-4.284276 -17.153950 6.897698
-3.603634 -17.242519 6.959767
-2.519587 -17.453472 6.963127
-1.485538 -17.624250 7.014984
-0.678087 -17.802471 7.011618
83.409142 -17.096632 6.638121
84.463112 -17.186333 6.657991
85.323799 -17.551662 7.068663
-18.166168 -16.880651 7.455663
-17.170126 -16.292294 7.121023
-12.645142 -16.340292 6.521671
-11.443756 -16.028521 6.501781
-10.340343 -15.975478 6.972712
-9.175701 -15.933648 7.000500
-8.380936 -16.129002 6.924342
-7.516554 -16.719534 6.874071
-6.800351 -16.846962 6.977396
-5.257931 -16.718330 6.920030
-4.699206 -16.835037 6.898219
82.932640 -16.546633 6.657993
83.075333 -16.397680 6.710100
85.809921 -16.480659 7.211489
-16.345993 -15.722780 6.671857
-15.523767 -15.233683 6.850374
-14.997711 -14.911570 7.310334
-13.599492 -15.205817 7.067240
-12.504179 -15.174978 6.923495
-11.472122 -15.292535 6.865381
-10.515395 -15.465441 6.939501
-9.502677 -15.721761 6.909153
-8.924756 -15.845295 6.982570
82.993378 -15.868755 6.543985
83.385941 -15.239677 6.960245
85.813599 -15.643319 7.364768
86.069107 -15.370477 7.462341
-14.404715 -14.603677 6.828154
-13.452518 -14.767015 6.669852
-12.878876 -14.861531 6.733317
-11.231262 -14.772730 6.780941
83.558769 -14.406934 7.003477
85.759804 -14.197141 7.340301
86.278519 -14.115823 6.954064
83.704308 -13.439247 7.008970
84.147682 -13.187223 6.983749
85.477249 -13.391607 6.974579
86.427505 -13.258148 6.826203
83.821091 -12.669275 7.164999
84.324425 -12.519894 7.125005
85.716095 -12.705504 6.894738
86.582581 -12.362740 6.987738
84.106819 -11.712809 7.182052
86.719887 -11.446945 7.004446
87.058289 -11.391533 7.097168
86.788170 -10.779301 7.045199
-42.293888 0.670368 6.927670
-41.477356 0.716102 7.213377
-40.819653 1.044685 7.320269
45.417786 0.816972 6.582129
98.941132 0.895880 6.516778
99.458817 0.850964 7.075304
-43.109280 1.933142 6.956142
-42.622837 1.606283 6.758932
-40.357975 1.371660 7.357539
-39.560318 1.845215 7.346560
43.530029 1.445473 6.625555
44.500000 1.405729 6.817958
45.706329 1.233517 6.612742
98.844658 1.567610 7.159866
99.531776 1.531799 7.124916
-43.313251 2.728928 6.869676
-42.868126 2.365108 6.794844
-39.068596 2.149315 7.407437
-38.465069 2.503696 7.381849
-37.741413 2.942574 7.395140
41.488377 2.962442 7.032583
42.063431 3.076190 7.036883
43.580101 2.591432 6.654358
44.178802 2.688432 6.771037
98.538094 2.627856 7.186610
99.415947 2.576238 7.033282
-44.152443 3.712243 6.917973
-43.663387 3.576373 6.921862
-37.279110 3.223162 7.392725
-36.231636 3.802388 7.068058
-35.888508 4.033354 7.360639
40.878262 3.906331 7.009366
41.303379 3.439356 6.968922
42.519436 3.594282 6.975062
43.333836 3.851024 7.000781
98.749603 3.523067 6.749413
99.675926 3.662355 7.130029
-44.191425 4.175039 6.812473
-43.942226 4.193598 6.935744
-35.426598 4.310298 7.375700
-34.538998 4.828909 7.329575
40.528179 4.617178 6.975972
41.060680 4.296039 6.658052
42.995026 4.110413 6.641383
43.606064 4.336941 7.075411
44.485580 4.630689 7.099512
45.259945 4.948269 7.039240
99.579399 4.648216 7.169563
-34.060326 5.131738 7.395002
-33.520355 5.440576 7.367451
-32.703510 5.930746 7.421816
39.808640 5.784088 6.993009
40.181759 5.413245 6.945533
44.901817 5.146822 7.125037
45.602398 5.378841 7.045822
46.442703 5.745701 7.026778
47.120331 6.032917 6.977604
84.621994 6.062068 6.659776
85.509048 6.054821 6.745342
86.590416 5.934585 7.084867
87.202850 5.893787 6.931641
99.685287 5.623734 7.218011
-32.235737 6.216199 7.440892
-31.634186 6.569558 7.462429
38.973442 7.074762 7.080926
39.414738 6.615606 6.954778
40.084702 6.279140 6.719602
46.753624 6.227998 7.055651
47.564281 6.451936 6.950641
48.467186 6.854136 7.033768
81.813217 7.065998 6.668606
82.551826 6.960647 6.979160
83.634598 6.732335 6.841546
84.363831 6.385348 6.846626
85.745018 6.377531 6.964052
86.528305 6.384329 7.080690
87.310181 6.478302 7.180771
88.078888 6.506956 7.160044
99.886795 6.709526 7.190550
-95.327766 7.904291 6.673436
-94.765984 7.728198 6.831041
-30.164907 7.447735 7.489806
38.745308 7.684971 6.991516
39.154713 7.365263 6.898349
48.677052 7.262530 7.014946
49.482601 7.489478 7.011056
50.359253 7.909829 6.988549
77.419678 8.040401 6.825926
78.941254 8.003887 7.379713
79.488235 7.856003 7.055185
80.655197 7.826482 6.634029
81.608696 7.511758 6.939593
82.495834 7.394764 6.934638
83.283791 7.206938 6.896729
84.291565 7.287247 7.223974
88.419830 7.513630 7.496286
99.661621 7.198500 7.039529
-99.878113 8.935083 7.388527
-95.512321 8.598142 6.583906
-94.687454 8.408285 6.693773
-93.546082 8.566320 6.918697
-92.483627 8.893477 7.120269
37.911198 8.958908 7.006112
38.319057 8.537546 6.958601
50.644417 8.290485 7.057675
51.472904 8.639382 7.021280
52.253483 8.992530 7.073246
73.493828 9.061673 7.264780
74.893089 9.033605 6.859490
75.553589 8.914874 6.884070
76.500214 8.688811 6.992008
77.179939 8.415960 6.927471
78.673035 8.319551 7.221219
79.224655 8.150401 7.144524
-99.598801 9.552160 7.412894
-93.522301 9.467431 6.644939
-92.589035 9.654066 6.834021
-91.317688 10.095850 6.657236
-90.837822 9.956771 7.127748
-41.808899 9.192192 7.218338
-26.116379 9.961079 7.220470
37.638210 9.651136 6.981171
38.084267 9.262410 6.934258
51.813313 9.192375 6.963398
52.609627 9.384022 7.024542
53.426964 9.760419 7.018795
54.108658 10.044517 6.990302
69.780113 10.063658 6.893864
70.547440 9.947937 7.119603
71.476852 9.922546 6.682452
72.607880 9.618749 7.076390
73.373436 9.428781 6.873639
74.550293 9.226963 6.693341
75.133018 9.153657 6.908811
92.145020 9.145962 6.999519
-99.455132 10.409675 7.352924
-98.239922 10.669374 6.723963
-92.544968 10.259542 6.606083
-91.330307 10.318686 6.741681
-26.318146 10.440052 7.122334
-25.587524 10.199422 7.171829
36.825359 10.832965 7.028737
37.239056 10.499931 6.944471
53.755932 10.257628 7.051707
54.534702 10.433247 6.984889
55.390793 10.854061 7.024208
66.651680 10.966270 6.781679
67.539139 10.853147 6.716459
68.643906 10.565293 6.935554
69.474335 10.360713 7.018700
70.314919 10.212237 7.082103
93.802185 10.171234 6.532869
94.427780 10.464705 6.587467
-22.623230 11.944720 7.078305
36.532124 11.613845 6.947415
37.091160 11.257448 6.723220
55.647163 11.302754 6.875611
56.494610 11.603756 6.959385
57.281029 11.908117 6.946507
62.973110 11.997760 7.096009
63.541645 11.744062 7.128700
64.285965 11.511619 7.121443
65.621902 11.322897 6.700059
66.287804 11.183968 6.782650
67.490868 11.170431 7.126082
95.828415 11.724467 7.016007
96.433655 11.793678 6.864644
-22.164652 12.259312 7.228668
-21.313044 12.716852 7.094177
-20.965780 12.919923 7.125673
35.792042 12.737464 6.995159
36.198986 12.460804 6.897401
56.961864 12.130603 7.128901
57.466125 12.281638 7.111207
63.296192 12.614093 7.250603
96.639946 12.235012 7.059539
97.457573 12.625188 7.119327
-20.264046 13.342969 7.131853
-19.509769 13.789875 7.157982
34.942177 14.011868 6.948608
35.444286 13.578084 6.995694
36.131104 13.198205 6.558521
63.496952 13.595049 7.113646
64.027313 14.043734 6.689298
98.206467 13.300274 6.784547
99.391525 13.809465 7.328338
-18.516285 14.387249 7.117867
-17.738237 14.847945 7.114476
-6.325185 14.755787 6.540149
-5.365075 14.741361 6.719710
-4.632533 14.883056 6.756180
34.722466 14.698730 6.999759
35.140911 14.366960 7.035859
63.613777 14.603313 6.819545
64.115898 14.694262 6.680058
68.266846 14.426586 7.238787
69.706787 14.141186 7.480745
-17.152248 15.220265 7.129451
-16.454264 15.636977 7.147663
-15.862226 15.997705 7.167203
-6.778766 15.480658 6.550880
-5.639970 15.635096 6.763704
-4.330938 15.300236 6.727758
-3.574019 15.711203 6.681190
-2.834518 15.869137 6.935091
33.870983 15.870739 7.073019
34.352894 15.542542 6.970119
63.821930 15.628137 6.942739
64.262558 15.540212 6.764882
-99.800873 16.684149 6.690619
-46.340431 16.960434 7.187123
-15.346601 16.312582 7.205399
-14.643052 16.730022 7.245489
-6.261018 16.713789 6.763474
-5.949163 16.215933 6.741947
-3.106639 16.536245 6.646952
-2.732639 16.530104 6.731758
33.613621 16.652164 7.021914
34.083599 16.239019 6.977479
62.653885 17.040506 6.782254
63.689674 16.602623 6.846845
64.203690 16.512072 6.868476
-99.299652 17.836868 7.020682
-98.926643 17.928150 6.893688
-47.064507 17.951799 7.189158
-46.704681 17.551817 7.175044
-45.358284 17.476341 7.128961
-44.328644 17.996357 7.044758
-14.008636 17.136700 7.478130
-13.703061 17.312223 7.365582
-12.539917 17.946032 7.095014
-7.014633 18.083031 6.637293
-6.692608 17.518778 6.686655
-3.383111 17.646780 6.737285
-2.827759 17.383320 6.776788
32.792660 17.754616 7.050645
33.249893 17.526371 7.024404
61.811092 17.367188 6.695603
62.175694 17.150806 6.729238
-99.653954 18.547642 6.803907
-98.871246 18.961498 6.520525
-47.439362 18.672771 7.123755
-46.591045 18.350849 7.241937
-44.292728 18.195511 6.930650
-43.528503 18.459898 7.120448
-42.695770 19.003780 7.142145
-7.108288 18.260483 6.675917
-4.242090 18.835402 6.667290
-3.624582 18.422518 6.647947
31.942402 19.024708 7.045545
32.513103 18.599749 6.995184
33.028316 18.148273 6.918002
62.348003 18.918716 6.965068
64.753197 18.355383 7.160708
65.053627 18.849609 7.302426
-99.652885 19.652052 6.908728
-98.647575 19.580082 6.720869
-48.150974 19.822702 7.185430
-47.725513 19.303587 7.201848
-44.516663 19.385458 7.290019
-42.308075 19.284859 7.090005
-41.634247 19.732990 7.170977
-6.415710 19.240862 6.920983
-5.672174 19.645702 6.957163
-4.543947 19.575109 6.652602
-3.977570 19.595985 6.549170
31.743208 19.687550 7.021728
32.200375 19.455360 6.979991
62.633591 19.705870 6.788639
64.728546 19.895084 7.371248
65.130035 19.618738 7.376389
-99.717522 20.596739 6.958563
-98.481705 20.368675 6.888835
-97.699120 20.659693 6.650567
-48.591015 20.560301 7.202743
-41.049957 20.168629 7.247648
-40.441116 20.484524 7.290309
-39.862030 20.625278 7.297861
-10.684448 20.352240 7.425475
-5.357346 20.673378 6.762794
-4.525381 20.490814 6.686766
30.915491 20.943378 7.066295
31.403135 20.547850 7.039093
62.873779 20.582537 6.969104
63.845245 20.771021 7.238828
64.384926 20.206116 7.285161
65.148163 20.157536 7.231681
-99.657082 21.558826 7.063704
-98.509056 21.708281 7.192928
-97.581802 21.656429 6.685920
-38.462696 21.706326 7.423971
-34.843414 22.042101 7.325811
-6.048065 21.910528 6.713830
-5.446621 21.486868 6.760396
-4.896027 21.148384 6.907538
30.622705 21.665745 7.031131
31.139441 21.340523 7.035094
62.650757 21.265244 6.530097
63.076797 21.311222 7.140485
64.493347 21.835175 7.476048
-99.719620 22.551855 7.237053
-98.353821 22.443399 7.156562
-97.558968 22.630161 6.827398
-96.969032 22.527164 6.547167
-35.029022 22.671303 7.412485
-5.577438 22.157522 7.005406
29.833466 22.807241 7.066288
30.297056 22.497690 6.997656
-99.674248 23.546171 7.361261
-98.709755 23.923120 7.341649
-97.449127 23.608866 6.870017
-96.796249 23.524986 6.594285
-35.666428 23.273552 7.329026
28.969126 24.087111 7.098349
29.526222 23.640913 7.033806
30.065464 23.215813 6.940306
-99.873230 24.330097 7.428523
-98.515076 24.182581 7.386362
-97.376610 24.676176 6.919318
-96.551216 24.573891 6.633591
28.761538 24.705875 7.082687
29.241165 24.486389 7.021533
-98.984650 25.120583 7.417863
-97.434418 25.714411 6.894651
-96.420013 25.563772 6.720223
-95.879341 25.858603 6.620750
28.721073 25.204590 7.156828
-97.338364 26.638142 6.802072
-96.353195 26.551405 6.885171
-95.534622 26.854603 6.596351
-97.315353 27.531191 6.844825
-96.522522 27.600910 6.906054
-95.488686 27.651455 6.737052
-94.474281 27.864988 6.570076
-99.645157 28.717699 7.461745
-97.395798 28.669710 6.968174
-96.418472 28.577303 6.844045
-95.564178 28.670160 6.921671
-94.706787 28.591282 6.570691
-97.354721 29.493975 7.093098
-96.494408 29.654093 6.952960
-95.525368 29.628305 6.936706
-94.614235 29.650776 6.774210
-97.620247 30.569685 7.367758
-96.338440 30.577736 6.973686
-95.419914 30.562868 6.968971
-94.496803 30.569439 6.962391
-93.905510 30.879229 6.792078
-71.248474 31.035202 6.932690
-97.442520 31.397818 7.233851
-96.498940 31.455715 7.113303
-95.394630 31.444080 6.927839
-94.611389 31.589741 7.221038
-93.709908 31.663803 6.977518
-72.073059 31.965954 6.738955
-71.654877 31.576960 6.889925
-70.524620 31.408054 7.007960
-69.773643 31.844675 7.055220
-97.276306 32.840099 7.398258
-96.435684 32.335476 7.282101
-95.452003 32.582226 7.062141
-94.390274 32.626907 7.298190
-93.405785 32.594486 7.017694
-92.802193 32.729160 6.622628
-72.389198 32.652462 6.828470
-71.931244 32.221004 6.822885
-69.201874 32.289047 7.089486
-68.554085 32.630260 7.014635
-67.826027 33.002914 7.113970
-96.431290 33.525314 7.386285
-95.447189 33.493565 7.213327
-94.634415 33.653320 7.187071
-93.475227 33.659168 7.206685
-92.564171 33.579731 6.638543
-73.158524 33.751823 6.818211
-72.806549 33.529873 6.943850
-68.167450 33.309822 6.858924
-67.418221 33.320293 6.935691
-66.596283 33.699085 7.081561
-96.376350 34.452122 7.480936
-95.502258 34.692894 7.333086
-94.871735 34.632122 7.256968
-93.347054 34.523125 7.353965
-92.434860 34.450142 6.873035
-91.486153 34.696140 6.771891
-90.801590 34.564449 7.160222
-73.487473 34.585712 7.038895
-65.418564 34.461208 7.183127
-64.602592 34.917160 7.306231
-95.473190 35.512260 7.465419
-94.784103 35.552322 7.346440
-93.222397 35.487411 7.476263
-92.427353 35.549137 7.291058
-91.755333 35.713234 7.012883
-74.271149 35.785702 7.027965
-73.855583 35.342827 7.139031
-64.126228 35.261219 7.072364
-63.552265 35.579411 7.063222
-62.805756 36.037888 6.914248
-94.566483 36.444088 7.413793
-92.393890 36.616539 7.222094
-91.506042 36.654945 6.868433
-90.828430 36.937149 6.540133
-75.105042 36.975338 6.868347
-74.709839 36.549355 7.098209
-62.502399 36.263737 6.960233
-61.672375 36.766388 6.967324
-94.175079 37.495895 7.465220
-91.468346 37.776775 7.203936
-90.672714 37.717594 6.663596
-75.439331 37.622169 6.999759
-74.918411 37.205997 7.431385
-60.473480 37.546459 6.741117
-59.708099 37.972710 6.727322
-91.060226 38.269161 7.131897
-90.638779 38.689507 6.963772
-76.177063 38.817341 6.993954
-75.892799 38.338394 6.932760
-59.174774 38.288116 6.720061
-58.412155 38.682526 6.701616
-57.650970 39.029373 6.676452
-90.410988 39.647579 6.942213
-89.662140 39.506840 6.586953
-76.658730 39.614933 7.100406
-56.639221 39.846779 6.691960
-90.277222 40.278572 6.973605
-77.262459 40.615215 7.125965
-76.939240 40.157669 6.829741
-55.177124 40.735344 6.673148
-54.578247 41.099655 6.665236
-90.084167 41.788902 6.938554
-88.561737 41.462917 7.070973
-87.726105 41.863365 6.901594
-78.082184 41.996487 7.179820
-77.724709 41.575958 6.940001
-87.028748 42.426373 6.990606
-86.499268 42.701134 6.935249
-78.408287 42.648251 7.043184
-77.892296 42.268402 6.588780
-90.318169 43.628349 7.301477
-89.898651 43.323338 7.184402
-79.312447 44.011398 7.222866
-78.750938 43.363785 6.974391
45.877502 44.025299 6.903266
46.262688 43.981834 7.142753
47.540062 43.379314 7.193593
-89.303497 44.484097 7.436460
-88.939423 44.425972 7.099295
-86.183990 44.840679 6.831756
-79.404419 44.431255 7.070947
-78.902344 44.113594 6.877933
44.408218 44.668606 6.880167
45.572163 44.280849 7.415750
-80.183746 45.566959 7.252011
-79.896751 45.513371 6.897397
40.986481 46.088848 7.361644
41.504436 45.879414 7.434683
42.444519 45.518127 7.129254
43.301254 45.276054 7.173410
-81.052933 46.947716 7.460991
-80.778404 46.731705 7.227106
38.703201 47.005226 7.315411
39.498386 46.723129 7.262575
40.456924 46.318680 7.199040
-81.345093 47.639900 7.242299
-80.891174 47.290382 7.235750
35.857056 48.088791 6.986411
36.575825 47.931282 7.100822
37.499264 47.543842 7.236223
38.253155 47.238010 7.227245
-81.705017 48.406757 7.123710
34.545979 48.801628 7.134019
35.496857 48.420422 7.074494
36.223103 48.213566 6.966397
33.603275 50.925251 7.139729
34.394562 50.630966 7.174136
6.589722 51.864201 6.800116
7.086960 52.000999 6.520424
31.873562 51.634392 7.081228
32.493389 51.422585 7.106125
33.083908 51.144341 7.129769
7.570472 52.327030 6.665176
8.446633 52.884827 6.677171
9.246689 53.046963 6.545050
38.650024 52.515121 6.573148
8.882086 53.202797 6.707940
9.575237 53.509720 6.735281
10.723195 54.244728 6.609151
11.189941 54.613255 6.601878
30.993805 54.978149 7.251310
31.679783 54.919106 7.065345
32.553398 54.683418 7.019561
33.241375 54.421638 7.141757
31.593155 55.172562 6.926933
39.206898 55.989521 6.634473
32.342773 57.936886 6.576031
43.403992 58.029491 6.604649
30.889465 59.092758 6.571787
31.524858 58.865746 6.916033
32.482910 58.520531 6.724950
42.904602 58.236580 6.590543
43.099930 58.157028 6.596166
29.502220 59.695827 6.977749
30.514893 59.492523 7.044643
31.362955 59.247177 7.283727
41.344666 61.969151 7.020087
32.700394 62.578037 7.406188
33.427170 62.513538 7.132512
0.747498 64.019974 6.631943
0.946716 64.119339 6.662433
1.115479 64.304192 6.702418
31.425079 64.995850 7.054558
-24.128860 65.947426 7.190890
-23.770233 65.877502 7.423642
31.811310 65.591850 7.301623
33.743530 65.145943 7.332091
82.440247 65.395798 6.576356
-25.093658 66.661644 6.853448
-24.702850 66.676239 7.039032
-23.615774 66.434975 6.817368
-22.581772 66.747673 7.267515
-27.963409 67.715691 7.327582
-24.050934 68.054344 6.748350
-22.270269 67.547775 7.159994
-21.624323 67.818077 7.130801
-20.666918 67.982056 6.947686
-18.295074 67.997841 6.938433
-26.694550 68.876633 6.921959
-23.598135 68.339882 6.925339
-22.710907 68.775955 7.091035
-21.514175 68.169312 6.931232
-20.507666 68.219772 6.826026
-19.528830 68.677979 6.993467
-18.482702 68.735886 6.919989
-17.465729 68.881821 7.221842
-16.788177 68.570274 7.225519
-15.361186 68.596367 6.939874
-14.359172 68.831924 6.979528
-12.985016 68.807213 7.394638
8.965057 68.846710 6.704470
9.182892 68.983055 6.743967
-22.337631 69.694481 6.938772
-21.789642 69.988213 6.586386
-19.356094 69.472519 7.048762
-18.314550 69.557487 6.926620
-17.545391 69.656593 7.066321
-16.771292 69.958076 7.014868
-15.050079 69.486664 7.226355
-14.684168 69.604416 6.889967
-13.585541 69.146881 6.835596
-17.087759 70.274780 6.670029
-16.439301 70.403488 7.080823
-15.615275 70.712723 7.106128
-14.259964 70.635635 7.205538
-13.992096 71.044189 7.219588
-11.416283 70.997414 7.344893
11.938995 70.629456 6.515471
-15.073227 71.155792 6.845599
-14.562912 71.129105 6.829775
-13.575131 71.708282 6.869894
-12.577495 71.684532 7.016744
-11.637211 71.394249 6.911893
-10.710388 71.587769 7.186322
-14.198593 72.623947 6.722774
-13.311900 72.172523 6.892427
-12.146179 72.564659 6.767210
-11.273285 72.349869 6.996083
-10.956284 72.464737 6.967462
-9.437856 72.974785 6.776334
-8.631439 72.939392 6.849925
-7.429352 72.935852 7.136499
-6.330475 73.078918 6.876329
14.783875 72.310287 6.689087
15.008026 72.458374 6.714561
-10.957428 73.193031 6.512207
-9.415273 73.269417 6.822967
-8.413088 73.606323 6.849325
-7.394782 73.763451 7.096093
-5.301941 73.387390 7.453529
-10.441437 75.067062 7.075591
-8.216512 74.522919 6.890602
-7.732285 74.354324 6.847740
-6.869598 74.179016 7.430077
-4.805603 75.023254 7.200299
-7.321625 75.545189 6.897103
-6.578817 75.384232 6.952514
-13.283813 76.755211 6.951718
-12.556511 76.830887 7.030563
-11.409119 76.503937 6.724990
-9.811188 77.020874 6.971448
-6.795380 77.011337 7.283408
-6.369965 77.397232 7.381725
-11.582031 78.837959 7.046943
18.047913 78.564178 7.467971
20.527832 78.835480 7.163981
18.613855 79.816109 7.273245
19.075134 80.070030 7.269883
20.847412 79.511650 7.197357
-9.563339 80.829536 7.055449
-8.723328 80.295319 7.439868
17.948303 81.101913 7.414688
18.811523 80.756798 7.130805
19.464283 80.536865 7.305876
18.475784 81.197174 7.325398
19.447723 81.272667 7.182370
20.773224 82.058548 6.629915
21.665222 82.078545 7.447927
19.989441 82.772675 7.416640
21.378042 82.605484 7.387091
20.930496 83.414429 7.086781
21.636215 83.816299 6.857272
22.336060 83.688011 6.899611
23.164734 83.748695 6.967828
19.598434 84.442429 7.477365
20.440445 84.300827 7.479272
27.377289 88.138428 6.603309
26.589813 92.382500 6.898136
31.894623 -98.840775 7.816844
32.624481 -98.271729 7.754930
33.283966 -97.911140 7.714872
33.786438 -97.629753 7.683916
34.605934 -97.466316 7.903384
35.436764 -97.179108 7.682229
36.169647 -96.983391 7.508774
35.802704 -96.883423 7.600826
36.472626 -96.802330 7.668217
37.505749 -96.631783 7.735972
38.105377 -96.507675 7.638004
72.160568 -80.116196 7.877459
42.297501 -79.006821 7.795759
71.844513 -79.506378 7.957059
72.000366 -79.626167 7.982013
42.709980 -78.751678 7.751112
43.567883 -78.234055 7.972899
44.084381 -77.938225 8.127119
44.592648 -77.604454 7.922293
45.334274 -77.149612 8.009205
70.703514 -77.565086 7.720330
45.853222 -76.823204 7.923101
46.444019 -76.468643 8.018582
47.161991 -76.021690 8.007147
69.972443 -76.480995 8.482395
70.004364 -76.438515 8.235395
47.626320 -75.724037 8.016610
48.507957 -75.191269 8.011983
49.291168 -75.029938 8.045431
69.300339 -75.334488 7.678564
48.980942 -74.862122 8.033441
49.582134 -74.560715 8.094928
50.351696 -74.147217 8.077805
51.039688 -73.958969 7.933229
68.656769 -74.329079 7.725527
50.773327 -73.771774 7.946173
51.537640 -73.396133 7.980709
52.249069 -73.026245 7.962714
67.951965 -73.170273 7.767073
68.133720 -73.589180 7.896538
52.646141 -72.647346 7.936469
53.462036 -72.217148 7.851211
54.204582 -71.998596 7.856918
66.901741 -72.345627 7.731606
67.326668 -72.438728 8.011662
53.878311 -71.851585 7.955407
54.553753 -71.517761 7.848744
55.321846 -71.086548 7.893538
66.693901 -71.560822 7.716691
55.736359 -70.739563 7.914446
56.523434 -70.307487 7.962406
57.241764 -70.005554 8.078608
65.819847 -70.190475 7.980394
66.128830 -70.665207 8.108347
56.965118 -69.894318 7.840623
57.587391 -69.605331 7.969852
58.380806 -69.190910 7.999966
59.040794 -68.950424 7.976011
64.928436 -68.906357 7.906047
65.374336 -69.435310 7.905111
-33.738129 -68.211823 7.539576
-31.381195 -68.697021 8.260997
58.848019 -68.795403 7.920887
59.557987 -68.393265 8.001333
60.248383 -68.009903 7.995776
64.722420 -68.405792 7.985461
65.032486 -68.831497 7.834411
-34.327393 -66.911186 7.559074
-33.418827 -67.160217 7.852244
-32.392162 -67.170631 7.846652
-31.348663 -67.644165 7.787934
-30.803019 -67.171104 7.763011
60.635540 -67.683998 7.988020
61.450462 -67.206383 8.012736
62.190304 -67.012360 7.979949
63.909939 -67.073845 7.920492
64.219940 -67.567436 7.917482
-38.271851 -65.941170 8.361971
-37.685860 -66.092125 7.563922
-36.543793 -66.398117 7.942986
-35.580498 -66.618637 8.017667
-34.596375 -66.786484 7.592828
-33.241974 -66.177620 7.750077
-32.422504 -66.321579 7.976010
-31.695038 -66.756088 8.396263
-30.613426 -66.464149 7.897948
61.932190 -66.852715 7.933558
62.505024 -66.525589 7.951069
63.321045 -66.283699 7.982958
-92.260101 -64.954666 7.637175
-91.470848 -65.135994 7.625386
-90.705124 -65.309029 7.620467
-48.663433 -65.016365 7.636374
-46.677902 -65.463638 7.537032
-45.330597 -65.683456 7.793681
-42.496475 -65.081741 7.648649
-41.109825 -65.255524 7.648025
-40.695332 -65.318192 7.704627
-39.223900 -65.649719 7.689129
-38.789192 -65.249390 7.615625
-37.592026 -65.210739 7.579975
-36.734161 -65.048363 7.605614
-34.472755 -65.237755 7.529977
-33.447601 -65.389221 7.701080
-32.628288 -65.427460 7.984639
-30.403118 -65.421989 7.990329
-96.454002 -63.996685 7.667999
-95.303680 -64.253967 7.622354
-94.423889 -64.452621 7.612073
-93.486275 -64.666000 7.640409
-92.742798 -64.836266 7.641722
-91.535942 -64.139038 7.796688
-90.229218 -63.985718 7.765618
-51.951019 -64.119614 7.803661
-50.602173 -63.998917 7.693572
-48.707214 -64.850845 7.629175
-47.979980 -64.667572 7.512337
-45.367310 -64.318550 7.574464
-44.907227 -64.388176 7.637962
-43.695087 -64.673080 8.174999
-41.528210 -63.987171 7.859957
-40.651215 -64.177933 8.113537
-39.380207 -64.414604 7.958787
-38.612209 -64.540321 7.748660
-37.492794 -64.425766 7.664447
-36.407940 -64.110573 7.703890
-35.267479 -64.215904 7.877949
-34.459888 -64.250267 7.980505
-33.518974 -64.151627 8.244313
-32.633736 -64.384315 8.309059
-30.229176 -64.417992 7.797878
-99.401070 -63.289314 7.611613
-98.480598 -63.493870 7.613194
-97.393036 -63.725441 7.651919
-96.829926 -63.845123 7.651929
-91.397766 -63.669151 7.657076
-90.642563 -63.568165 7.613261
-55.779617 -63.048809 7.818069
-53.904968 -63.209518 7.972875
-52.196533 -63.774483 8.114719
-51.293056 -63.059364 7.658073
-50.378849 -63.142189 7.691417
-49.650997 -63.282093 7.699018
-48.497742 -63.426937 7.766834
-47.461163 -63.392628 7.798381
-46.555412 -63.124550 7.732671
-45.492142 -63.154903 7.624328
-44.471592 -63.279518 7.607392
-43.475922 -63.255817 7.619263
-42.516056 -63.423199 7.710182
-41.453308 -63.508064 7.940517
-40.769524 -63.327812 8.244214
-39.505169 -63.275341 8.335221
-38.227219 -63.781803 7.970225
-37.488762 -63.376678 8.082988
-36.492321 -63.419563 8.164772
-34.229378 -63.830166 8.256516
-33.850769 -63.861610 8.327777
-30.095398 -63.785534 7.706750
-29.850554 -63.234276 7.989276
-89.798859 -62.319286 7.692123
-59.477985 -62.271839 7.641896
-58.837463 -62.332745 7.947044
-57.707203 -62.464130 7.731656
-56.199524 -62.607986 7.905472
-55.886505 -62.823372 7.816589
-52.281498 -62.635769 7.693742
-51.681629 -62.643589 7.859654
-50.405304 -62.426769 7.811546
-49.778725 -62.377014 7.807025
-47.242813 -62.320461 8.031003
-46.445824 -62.772266 7.724022
-45.581341 -62.679756 7.691288
-44.555107 -62.670727 7.630557
-43.582062 -62.476868 7.747331
-42.770203 -62.485039 7.879841
-41.318108 -62.320999 8.238364
-40.735992 -62.330025 8.397137
-39.315136 -62.446831 8.396857
-38.644127 -62.609283 8.382381
-31.126776 -62.027496 8.291642
-30.934235 -61.928566 8.373122
-29.395853 -62.115246 7.771625
-28.473642 -62.069450 7.935392
-92.556915 -61.008762 8.054147
-63.340931 -61.029392 7.710193
-62.530144 -61.278160 7.789722
-61.345261 -61.541386 7.867465
-60.964630 -61.614265 7.758501
-59.628590 -61.014633 7.672103
-58.452988 -60.984013 7.766833
-51.390656 -61.327301 7.652590
-50.466343 -61.579468 7.726433
-49.745735 -61.676811 7.884886
-48.743839 -61.254894 8.385746
-47.463936 -61.440880 8.343122
-46.457237 -61.297333 8.252669
-45.746841 -61.089291 8.364002
-44.628174 -61.355606 8.245872
-43.234428 -61.646950 8.224276
-42.585987 -61.750778 8.293758
-41.622314 -61.843193 8.469736
-31.098219 -61.590561 7.997181
-30.911186 -61.419014 7.907903
-29.525736 -61.803440 7.747727
-28.068333 -61.659542 8.028774
-27.958126 -61.243973 7.982149
2.320079 -61.540413 8.480775
-92.365852 -60.699860 7.965130
-91.773621 -60.465195 7.810049
-70.015686 -59.979736 8.164707
-69.800781 -59.981159 8.067231
-66.007812 -60.809517 7.627653
-65.667328 -60.664986 8.306385
-64.544144 -60.574100 7.800843
-63.345436 -60.045490 7.834107
-62.497112 -60.133099 7.798541
-61.480770 -60.178402 7.791717
-60.562012 -60.415432 7.817160
-59.461941 -60.437729 7.843200
-58.805031 -60.508736 7.922595
-57.334839 -60.033680 7.841635
-56.497105 -60.395706 7.758133
-55.471546 -60.251282 7.718188
-54.561337 -60.282185 7.657249
-53.552532 -60.283501 7.813834
-52.521912 -60.142120 7.674975
-51.500431 -60.189968 7.754374
-50.424911 -60.219055 8.083079
-49.456295 -60.397858 8.324952
-48.655365 -60.593273 8.413218
-47.699070 -60.508152 8.475180
-30.678467 -60.018986 7.727869
-27.769020 -60.434380 8.037439
2.627767 -60.378269 8.398378
-92.178551 -59.805161 8.069089
-91.642120 -59.296051 8.014946
-89.511780 -59.062462 7.561834
-82.810608 -58.945854 7.849028
-73.450233 -58.951569 7.630136
-70.244049 -59.485016 7.677777
-69.863037 -59.889153 8.132210
-66.318375 -59.230808 7.782207
-65.383774 -59.247505 7.792159
-64.465088 -59.432766 7.851370
-63.611725 -59.549244 8.014745
-62.498459 -59.528908 7.888297
-61.507599 -59.661617 7.896980
-60.528801 -59.639805 8.109627
-59.545177 -59.278770 7.995934
-58.578884 -59.500484 7.876832
-57.472313 -59.390862 7.900095
-56.601555 -59.219025 8.247338
-55.279858 -59.525642 7.928586
-54.398090 -59.359875 7.751653
-53.541615 -59.280277 7.721971
-52.470932 -59.402012 7.799397
-51.603401 -59.558392 8.031534
-50.594635 -59.590439 8.320271
-30.498442 -59.632996 7.991983
-27.527142 -59.393520 8.070088
1.765259 -59.187019 8.430299
2.644206 -59.526688 8.347271
-90.216049 -58.243347 7.884583
-89.553589 -58.462715 7.665265
-87.530678 -57.953884 7.583392
-86.498062 -58.094963 7.640404
-85.723267 -58.199894 7.566765
-84.461304 -58.112625 7.713247
-83.368492 -58.238449 7.702559
-82.778229 -58.354057 7.732668
-81.946762 -58.176006 7.555735
-76.724030 -58.495354 7.780686
-72.359253 -57.966953 7.593363
-71.454483 -58.080269 7.608457
-70.560654 -58.276085 7.617420
-69.666039 -58.147469 7.746096
-68.528572 -58.083096 7.641617
-67.490486 -58.116764 7.604687
-66.486702 -58.367668 7.653230
-65.469543 -58.366909 7.754604
-64.497246 -58.399792 8.015820
-63.559624 -58.311504 8.229820
-62.559048 -58.270210 8.206888
-61.478733 -58.349831 8.089370
-60.541161 -58.531776 8.005604
-59.621487 -58.646240 8.158905
-57.580761 -58.575584 8.215021
-56.674187 -58.437866 8.359425
-55.258728 -58.436726 8.168870
-54.241211 -58.161293 8.262426
